-0.244282 -0.258098 2.463480 
-0.244730 -0.138966 2.465480 
-0.244875 -0.019434 2.466780 
-0.245880 0.099929 2.469310 
-0.247836 0.219421 2.472570 
-0.249683 0.338780 2.475320 
-0.159523 -0.261177 2.544980 
-0.159908 -0.141739 2.547020 
-0.161802 -0.022473 2.549940 
-0.163192 0.096640 2.552510 
-0.164401 0.216196 2.555430 
-0.165621 0.335460 2.557250 
-0.075683 -0.263958 2.627280 
-0.076141 -0.144945 2.628850 
-0.077487 -0.025490 2.631540 
-0.078844 0.093617 2.634030 
-0.080002 0.212903 2.636030 
-0.081306 0.332323 2.638860 
0.008431 -0.266983 2.709340 
0.007602 -0.147800 2.711610 
0.006353 -0.028689 2.714680 
0.005371 0.090546 2.716780 
0.004264 0.209676 2.718610 
0.003221 0.328848 2.720250 
0.092594 -0.270051 2.791650 
0.091695 -0.151025 2.794430 
0.090785 -0.031779 2.796870 
0.089689 0.087332 2.798530 
0.088428 0.206505 2.801010 
0.087234 0.325748 2.803020 
0.176574 -0.273137 2.873420 
0.175454 -0.154187 2.877420 
0.174812 -0.034830 2.877910 
0.173428 0.084335 2.881380 
0.172558 0.203411 2.881960 
0.171295 0.322441 2.883590 
0.260481 -0.276127 2.955260 
0.259487 -0.156912 2.957190 
0.258538 -0.037751 2.959730 
0.257574 0.081263 2.962000 
0.255980 0.200425 2.965230 
0.255029 0.319267 2.964940 
0.344078 -0.279089 3.038260 
0.343350 -0.160123 3.040300 
0.342232 -0.041001 3.043130 
0.340968 0.078217 3.044720 
0.339696 0.197224 3.046210 
0.338239 0.316397 3.048220 
0.949423 -0.280083 3.056590 
0.947421 -0.161513 3.059500 
0.945056 -0.042679 3.061230 
0.942994 0.075966 3.063950 
0.941100 0.194728 3.068020 
0.938812 0.313522 3.069250 
1.034420 -0.274725 2.970470 
1.032500 -0.156099 2.973730 
1.030290 -0.037366 2.976870 
1.027990 0.081241 2.978350 
1.026260 0.200040 2.980860 
1.024310 0.318811 2.984760 
1.119180 -0.269225 2.885110 
1.117320 -0.150511 2.887400 
1.115310 -0.032070 2.891060 
1.113140 0.086647 2.892540 
1.111040 0.205376 2.895390 
1.109400 0.324204 2.899470 
1.204240 -0.263788 2.799720 
1.202430 -0.145281 2.802730 
1.200340 -0.026592 2.805100 
1.198010 0.092021 2.806880 
1.196270 0.210685 2.810110 
1.194350 0.329186 2.812370 
1.288620 -0.258400 2.713140 
1.286670 -0.139822 2.715380 
1.284840 -0.021226 2.718760 
1.282500 0.097382 2.721540 
1.280760 0.215825 2.723790 
1.278630 0.334531 2.726560 
1.373120 -0.252780 2.627710 
1.371810 -0.134372 2.630380 
1.369850 -0.015788 2.633000 
1.368030 0.102836 2.636710 
1.365980 0.221285 2.638790 
1.364220 0.339693 2.641430 
1.458400 -0.247506 2.542380 
1.456770 -0.128882 2.545850 
1.454540 -0.010515 2.548280 
1.452880 0.108093 2.551740 
1.450340 0.226578 2.553660 
1.449600 0.345106 2.557690 
1.543670 -0.242166 2.458190 
1.541490 -0.123489 2.460920 
1.539910 -0.005052 2.463680 
1.537810 0.113363 2.466880 
1.535920 0.231954 2.469160 
1.534330 0.350260 2.471940 
0.759211 0.603099 2.823390 
0.674352 0.604916 2.741150 
0.590150 0.606875 2.660050 
0.505598 0.608940 2.579080 
0.420426 0.611148 2.498950 
0.336619 0.613499 2.418660 
0.843067 0.606915 2.734900 
0.758934 0.609426 2.656480 
0.674006 0.611067 2.573990 
0.590175 0.613534 2.494500 
0.505772 0.615480 2.413190 
0.421189 0.617666 2.333180 
0.928273 0.611858 2.651590 
0.843141 0.613710 2.569430 
0.759171 0.615790 2.488280 
0.675108 0.618135 2.409110 
0.590573 0.620129 2.327850 
0.505778 0.621300 2.245220 
1.012880 0.615460 2.565860 
0.928104 0.617671 2.484690 
0.843750 0.619735 2.404680 
0.759072 0.622337 2.322170 
0.674934 0.624179 2.240640 
0.590805 0.626425 2.161370 
1.096610 0.621193 2.479050 
1.012150 0.622831 2.397560 
0.928125 0.624804 2.315820 
0.843520 0.626837 2.235020 
0.759134 0.628543 2.152820 
0.675352 0.630923 2.073550 
1.180780 0.625526 2.391450 
1.096960 0.628041 2.312560 
1.012150 0.629441 2.229810 
0.928139 0.631508 2.149740 
0.843883 0.633512 2.068010 
0.760259 0.635630 1.987260 
1.264780 0.629994 2.305640 
1.180740 0.632086 2.225020 
1.096990 0.634514 2.145320 
1.012420 0.636347 2.063330 
0.928137 0.638340 1.981760 
0.844476 0.640256 1.900840 
1.349070 0.635069 2.220170 
1.264800 0.636679 2.138630 
1.180880 0.639192 2.058460 
1.096740 0.641182 1.976730 
1.012920 0.643525 1.896590 
0.928839 0.645366 1.815040 
