0.031361 0.213609 -2.345250 
0.024759 0.116024 -2.413295 
0.018854 0.017933 -2.481362 
0.011474 -0.079835 -2.549493 
0.002905 -0.177770 -2.617523 
-0.005216 -0.275766 -2.685261 
0.031670 0.282530 -2.440568 
0.025070 0.184734 -2.508847 
0.016798 0.086867 -2.576598 
0.009133 -0.010826 -2.644376 
0.001324 -0.108669 -2.712708 
-0.005690 -0.206733 -2.780257 
0.030754 0.351187 -2.535939 
0.024459 0.253517 -2.603672 
0.016724 0.155609 -2.671736 
0.009140 0.057901 -2.739486 
0.002040 -0.040083 -2.807185 
-0.005765 -0.137888 -2.875332 
0.030211 0.420050 -2.631205 
0.023148 0.322390 -2.699198 
0.015221 0.224960 -2.767338 
0.008173 0.127127 -2.835172 
0.001236 0.029221 -2.902719 
-0.005522 -0.068775 -2.970225 
0.029524 0.489072 -2.726617 
0.022052 0.391726 -2.794761 
0.014808 0.294053 -2.862834 
0.008001 0.196096 -2.930283 
0.000489 0.098365 -2.998123 
-0.006643 0.000407 -3.065783 
0.029098 0.557813 -2.821606 
0.020599 0.460953 -2.890252 
0.014939 0.362480 -2.957466 
0.006629 0.265120 -3.025777 
0.000758 0.166829 -3.092743 
-0.006140 0.068862 -3.160028 
0.028568 0.626476 -2.916644 
0.021634 0.528585 -2.984364 
0.014295 0.431009 -3.052420 
0.007146 0.333436 -3.120235 
-0.001137 0.235899 -3.188283 
-0.006430 0.137407 -3.254584 
0.026988 0.695481 -3.012153 
0.020170 0.597942 -3.079957 
0.012506 0.500454 -3.148050 
0.005629 0.402315 -3.215418 
-0.001173 0.304305 -3.282607 
-0.008484 0.206304 -3.350066 
0.433752 0.935791 -3.391065 
0.425440 0.838453 -3.458352 
0.417714 0.740268 -3.524909 
0.409495 0.642765 -3.592096 
0.400416 0.545793 -3.660203 
0.393105 0.447461 -3.726507 
0.554426 0.928088 -3.398016 
0.545917 0.830881 -3.465580 
0.537289 0.733425 -3.532959 
0.529797 0.635347 -3.599289 
0.521953 0.537758 -3.666649 
0.512957 0.440686 -3.734632 
0.674383 0.920493 -3.405325 
0.666610 0.822833 -3.472435 
0.657758 0.725911 -3.540062 
0.650352 0.627792 -3.606534 
0.642010 0.530260 -3.673818 
0.633097 0.433335 -3.742122 
0.794572 0.913053 -3.412766 
0.786325 0.815882 -3.480191 
0.778335 0.718188 -3.547191 
0.770607 0.620218 -3.613673 
0.762243 0.523036 -3.681351 
0.754458 0.425516 -3.748287 
0.915148 0.904898 -3.419102 
0.907354 0.807294 -3.486053 
0.898822 0.710196 -3.553720 
0.890368 0.612643 -3.620750 
0.882718 0.515235 -3.687758 
0.874413 0.417678 -3.754966 
1.034970 0.897075 -3.426282 
1.027318 0.800036 -3.493766 
1.019243 0.702582 -3.560925 
1.010480 0.605602 -3.628799 
1.002737 0.508000 -3.695527 
0.994794 0.410776 -3.762720 
1.155276 0.889879 -3.433798 
1.146817 0.792872 -3.501654 
1.138701 0.695414 -3.568420 
1.130229 0.598405 -3.636244 
1.122260 0.500518 -3.702603 
1.114020 0.404165 -3.771260 
1.274752 0.883098 -3.441980 
1.266441 0.785529 -3.509119 
1.258536 0.688400 -3.576504 
1.249954 0.591273 -3.643806 
1.242172 0.493698 -3.710822 
1.234250 0.396682 -3.778139 
0.433535 0.037543 -3.643499 
0.433740 -0.030685 -3.546996 
0.433576 -0.098303 -3.451608 
0.433070 -0.166088 -3.356140 
0.431525 -0.233880 -3.260841 
0.431036 -0.301333 -3.166366 
0.555185 0.029688 -3.647565 
0.553118 -0.037244 -3.554023 
0.553462 -0.105456 -3.457239 
0.552376 -0.172681 -3.363260 
0.552224 -0.240453 -3.267626 
0.551001 -0.307951 -3.172741 
0.674000 0.023577 -3.655974 
0.673957 -0.044751 -3.559369 
0.673984 -0.112401 -3.464163 
0.672512 -0.179481 -3.370152 
0.672230 -0.247322 -3.274492 
0.672786 -0.315154 -3.177447 
0.794194 0.017335 -3.661913 
0.793671 -0.050740 -3.566279 
0.792613 -0.118050 -3.471465 
0.793106 -0.186967 -3.375365 
0.793300 -0.254643 -3.279711 
0.791857 -0.321709 -3.185548 
0.914470 0.008550 -3.667920 
0.914420 -0.059065 -3.571977 
0.914838 -0.126893 -3.476349 
0.914175 -0.194602 -3.380924 
0.914683 -0.262540 -3.284669 
0.913477 -0.329582 -3.190794 
1.035677 0.000759 -3.672965 
1.034165 -0.066251 -3.579353 
1.034788 -0.134328 -3.482362 
1.034010 -0.201533 -3.387724 
1.034259 -0.269472 -3.291979 
1.034237 -0.336854 -3.197228 
1.155472 -0.006462 -3.678978 
1.155069 -0.073928 -3.584032 
1.154192 -0.141178 -3.489963 
1.154417 -0.209203 -3.393785 
1.154533 -0.277076 -3.298106 
1.154616 -0.344377 -3.203124 
1.275200 -0.013932 -3.685700 
1.275318 -0.081472 -3.589829 
1.274658 -0.149052 -3.495444 
1.274988 -0.216934 -3.399761 
1.274382 -0.284323 -3.305357 
1.274630 -0.351985 -3.209727 
