#Created by C++ matrix writer.
-0.955223 -0.48762 -0.14945 
-0.955222 -0.48762 -0.14945 
-0.955671 -0.368488 -0.14745 
-0.95567 -0.368489 -0.14745 
-0.955816 -0.248956 -0.14615 
-0.955816 -0.248956 -0.14615 
-0.956821 -0.129593 -0.14362 
-0.956821 -0.129593 -0.14362 
-0.958777 -0.0101011 -0.14036 
-0.958777 -0.0101011 -0.14036 
-0.960624 0.109258 -0.13761 
-0.960624 0.109258 -0.13761 
-0.870464 -0.490699 -0.06795 
-0.870464 -0.490699 -0.06795 
-0.870849 -0.371261 -0.0659101 
-0.870849 -0.371261 -0.0659096 
-0.872743 -0.251995 -0.06299 
-0.872743 -0.251995 -0.0629901 
-0.874133 -0.132882 -0.06042 
-0.874132 -0.132881 -0.0604196 
-0.875342 -0.013326 -0.0575001 
-0.875342 -0.0133261 -0.0574998 
-0.876562 0.105938 -0.05568 
-0.876562 0.105938 -0.0556794 
-0.786624 -0.49348 0.0143499 
-0.786623 -0.49348 0.0143503 
-0.787082 -0.374467 0.0159199 
-0.787082 -0.374466 0.0159201 
-0.788428 -0.255012 0.01861 
-0.788428 -0.255012 0.0186105 
-0.789785 -0.135905 0.0211 
-0.789784 -0.135905 0.0211008 
-0.790943 -0.0166191 0.0230999 
-0.790942 -0.0166193 0.0230998 
-0.792247 0.102801 0.0259299 
-0.792247 0.1028 0.0259297 
-0.70251 -0.496505 0.09641 
-0.70251 -0.496505 0.0964098 
-0.703339 -0.377322 0.09868 
-0.703338 -0.377322 0.0986806 
-0.704588 -0.258211 0.10175 
-0.704588 -0.258211 0.10175 
-0.70557 -0.138976 0.10385 
-0.70557 -0.138975 0.10385 
-0.706677 -0.0198461 0.10568 
-0.706677 -0.0198464 0.10568 
-0.70772 0.099326 0.10732 
-0.70772 0.0993264 0.10732 
-0.618347 -0.499573 0.17872 
-0.618346 -0.499573 0.17872 
-0.619246 -0.380547 0.1815 
-0.619246 -0.380547 0.1815 
-0.620156 -0.261301 0.18394 
-0.620156 -0.261301 0.18394 
-0.621252 -0.14219 0.1856 
-0.621253 -0.142191 0.1856 
-0.622513 -0.023017 0.18808 
-0.622513 -0.0230173 0.188079 
-0.623707 0.0962259 0.19009 
-0.623707 0.0962263 0.190091 
-0.534367 -0.502659 0.26049 
-0.534367 -0.502659 0.26049 
-0.535487 -0.383709 0.26449 
-0.535487 -0.383709 0.26449 
-0.536129 -0.264352 0.26498 
-0.536129 -0.264352 0.26498 
-0.537513 -0.145187 0.26845 
-0.537513 -0.145186 0.26845 
-0.538383 -0.0261111 0.26903 
-0.538383 -0.0261111 0.269029 
-0.539646 0.092919 0.27066 
-0.539647 0.0929189 0.27066 
-0.45046 -0.505649 0.34233 
-0.45046 -0.505648 0.34233 
-0.451454 -0.386434 0.34426 
-0.451454 -0.386434 0.34426 
-0.452403 -0.267273 0.3468 
-0.452403 -0.267274 0.3468 
-0.453367 -0.148259 0.34907 
-0.453367 -0.14826 0.34907 
-0.454961 -0.0290971 0.3523 
-0.454961 -0.0290974 0.3523 
-0.455912 0.089745 0.35201 
-0.455912 0.0897451 0.35201 
-0.366863 -0.508611 0.42533 
-0.366863 -0.508611 0.42533 
-0.367591 -0.389645 0.42737 
-0.36759 -0.389645 0.42737 
-0.368709 -0.270523 0.4302 
-0.368709 -0.270523 0.4302 
-0.369973 -0.151305 0.43179 
-0.369973 -0.151305 0.43179 
-0.371245 -0.032298 0.43328 
-0.371245 -0.0322978 0.43328 
-0.372702 0.086875 0.43529 
-0.372702 0.0868751 0.43529 
0.238482 -0.509605 0.44366 
0.238483 -0.509605 0.44366 
0.23648 -0.391035 0.44657 
0.23648 -0.391035 0.44657 
0.234115 -0.272201 0.4483 
0.234115 -0.272202 0.4483 
0.232053 -0.153556 0.45102 
0.232053 -0.153556 0.451019 
0.230159 -0.034794 0.45509 
0.230159 -0.0347942 0.45509 
0.227871 0.084 0.45632 
0.227871 0.0840001 0.456319 
0.323479 -0.504247 0.35754 
0.323479 -0.504247 0.35754 
0.321559 -0.385621 0.3608 
0.32156 -0.385621 0.3608 
0.319349 -0.266888 0.36394 
0.319349 -0.266889 0.36394 
0.317049 -0.148281 0.36542 
0.317049 -0.148282 0.36542 
0.315319 -0.0294821 0.36793 
0.315319 -0.0294826 0.36793 
0.313369 0.0892889 0.37183 
0.313369 0.0892884 0.37183 
0.408239 -0.498747 0.27218 
0.408239 -0.498747 0.272179 
0.406379 -0.380033 0.27447 
0.406379 -0.380033 0.274469 
0.404369 -0.261592 0.27813 
0.404369 -0.261593 0.27813 
0.402199 -0.142875 0.27961 
0.402199 -0.142875 0.27961 
0.400099 -0.0241461 0.28246 
0.4001 -0.0241457 0.28246 
0.398459 0.0946819 0.28654 
0.398459 0.0946817 0.28654 
0.493299 -0.49331 0.18679 
0.493299 -0.49331 0.18679 
0.491489 -0.374803 0.1898 
0.49149 -0.374802 0.1898 
0.489399 -0.256114 0.19217 
0.489399 -0.256114 0.192171 
0.487069 -0.137501 0.19395 
0.487069 -0.137501 0.19395 
0.485329 -0.018837 0.19718 
0.485329 -0.0188367 0.19718 
0.483409 0.0996639 0.19944 
0.483409 0.0996638 0.19944 
0.577679 -0.487922 0.10021 
0.577679 -0.487922 0.10021 
0.575729 -0.369344 0.10245 
0.57573 -0.369344 0.10245 
0.573899 -0.250748 0.10583 
0.573898 -0.250748 0.10583 
0.571559 -0.13214 0.10861 
0.571559 -0.13214 0.10861 
0.569819 -0.013697 0.11086 
0.569819 -0.0136969 0.110859 
0.567689 0.105009 0.11363 
0.567689 0.105009 0.113629 
0.662179 -0.482302 0.01478 
0.662179 -0.482302 0.0147798 
0.660869 -0.363894 0.0174499 
0.660869 -0.363894 0.0174496 
0.658909 -0.24531 0.0200698 
0.658909 -0.24531 0.0200698 
0.657089 -0.126686 0.0237799 
0.657089 -0.126686 0.02378 
0.655039 -0.00823705 0.0258598 
0.655039 -0.00823684 0.0258601 
0.653279 0.110171 0.0284998 
0.653279 0.110171 0.0285002 
0.747459 -0.477028 -0.07055 
0.747459 -0.477028 -0.0705502 
0.745829 -0.358404 -0.06708 
0.745829 -0.358404 -0.06708 
0.743599 -0.240037 -0.0646501 
0.743599 -0.240037 -0.0646506 
0.741939 -0.121429 -0.0611901 
0.741939 -0.121429 -0.0611895 
0.739399 -0.00294405 -0.0592701 
0.739399 -0.00294386 -0.0592707 
0.738659 0.115584 -0.0552402 
0.738659 0.115584 -0.0552401 
0.832729 -0.471688 -0.15474 
0.832729 -0.471687 -0.15474 
0.830549 -0.353011 -0.15201 
0.830549 -0.353011 -0.152009 
0.828969 -0.234574 -0.14925 
0.828969 -0.234574 -0.14925 
0.826869 -0.116159 -0.14605 
0.826869 -0.116159 -0.14605 
0.824979 0.00243194 -0.14377 
0.824979 0.00243212 -0.14377 
0.823389 0.120738 -0.14099 
0.823389 0.120738 -0.140989 
0.0482702 0.373577 0.21046 
0.0482703 0.373577 0.21046 
-0.0365888 0.375394 0.12822 
-0.0365891 0.375394 0.12822 
-0.120791 0.377353 0.0471199 
-0.120791 0.377353 0.0471193 
-0.205343 0.379418 -0.03385 
-0.205343 0.379418 -0.0338495 
-0.290515 0.381626 -0.11398 
-0.290515 0.381626 -0.11398 
-0.374322 0.383977 -0.19427 
-0.374321 0.383977 -0.19427 
0.132126 0.377393 0.12197 
0.132126 0.377393 0.12197 
0.0479932 0.379904 0.04355 
0.0479933 0.379904 0.0435502 
-0.0369349 0.381545 -0.03894 
-0.0369352 0.381544 -0.0389399 
-0.120766 0.384012 -0.11843 
-0.120766 0.384011 -0.11843 
-0.205169 0.385958 -0.19974 
-0.205169 0.385958 -0.19974 
-0.289752 0.388144 -0.27975 
-0.289752 0.388144 -0.27975 
0.217332 0.382336 0.03866 
0.217333 0.382336 0.0386601 
0.1322 0.384188 -0.0434999 
0.132201 0.384188 -0.0435001 
0.0482302 0.386268 -0.12465 
0.0482301 0.386268 -0.12465 
-0.0358328 0.388613 -0.20382 
-0.0358328 0.388613 -0.20382 
-0.120368 0.390607 -0.28508 
-0.120368 0.390607 -0.28508 
-0.205163 0.391778 -0.36771 
-0.205163 0.391778 -0.36771 
0.301939 0.385938 -0.04707 
0.301939 0.385937 -0.04707 
0.217163 0.388149 -0.12824 
0.217163 0.388149 -0.12824 
0.132809 0.390213 -0.20825 
0.132809 0.390213 -0.20825 
0.0481312 0.392815 -0.29076 
0.0481315 0.392815 -0.29076 
-0.0360068 0.394657 -0.37229 
-0.0360064 0.394656 -0.37229 
-0.120136 0.396903 -0.45156 
-0.120136 0.396903 -0.45156 
0.385669 0.391671 -0.13388 
0.385669 0.391671 -0.133879 
0.301209 0.393309 -0.21537 
0.301209 0.393309 -0.21537 
0.217184 0.395282 -0.29711 
0.217185 0.395282 -0.29711 
0.132579 0.397315 -0.37791 
0.132579 0.397315 -0.37791 
0.0481932 0.399021 -0.46011 
0.0481921 0.399021 -0.46011 
-0.0355889 0.401401 -0.53938 
-0.0355887 0.401401 -0.53938 
0.469839 0.396004 -0.22148 
0.469839 0.396005 -0.22148 
0.386019 0.398519 -0.30037 
0.386019 0.398519 -0.30037 
0.301209 0.399919 -0.38312 
0.30121 0.399919 -0.38312 
0.217198 0.401986 -0.46319 
0.217198 0.401985 -0.46319 
0.132942 0.40399 -0.54492 
0.132942 0.40399 -0.54492 
0.0493181 0.406108 -0.62567 
0.0493175 0.406108 -0.62567 
0.553839 0.400472 -0.30729 
0.553839 0.400471 -0.30729 
0.469799 0.402564 -0.38791 
0.469799 0.402564 -0.387909 
0.386049 0.404992 -0.46761 
0.386049 0.404992 -0.46761 
0.301479 0.406825 -0.5496 
0.301479 0.406825 -0.5496 
0.217196 0.408818 -0.63117 
0.217196 0.408818 -0.63117 
0.133535 0.410734 -0.71209 
0.133535 0.410734 -0.71209 
0.638129 0.405547 -0.39276 
0.638129 0.405546 -0.39276 
0.553859 0.407157 -0.4743 
0.553858 0.407157 -0.4743 
0.469939 0.40967 -0.55447 
0.469939 0.40967 -0.55447 
0.385799 0.41166 -0.6362 
0.385799 0.41166 -0.6362 
0.301979 0.414003 -0.71634 
0.301979 0.414002 -0.71634 
0.217898 0.415844 -0.79789 
0.217898 0.415844 -0.79789 

